72.0,69.0,4.31645587531,2,3,0
72.0,72.0,4.44666021198,2,3,0
72.0,75.0,4.48890283464,2,3,0
72.0,78.0,4.33950340180,2,3,0
72.0,81.0,4.08070323499,2,3,0
72.0,84.0,3.65783951042,2,3,0
72.0,87.0,3.36097454382,2,3,0
72.0,90.0,2.35057741882,2,6,0
72.0,93.0,1.57397884715,2,6,0
72.0,96.0,0.674130150598,2,6,0
72.0,99.0,0.185299174244,2,6,0
72,102,0,1,6,0
72,105,0,1,6,0
72,108,0,1,6,0
72.0,111.0,0.16307866546,2,6,0
72.0,114.0,0.853391751766,2,6,0
72.0,117.0,1.39376685945,2,3,0
72.0,120.0,2.36607001855,2,3,0
72.0,123.0,3.77056843233,2,3,0
72.0,126.0,4.60771616392,2,3,0
72.0,129.0,4.76935154708,2,3,1
72.0,132.0,5.41753773376,2,3,0
72.0,135.0,5.23742399851,2,3,0
72.0,138.0,5.08965884507,2,3,0
72.0,141.0,5.31564407039,2,3,0
72.0,144.0,5.73331781261,2,3,0
72.0,147.0,7.07255631202,2,3,0
72.0,150.0,8.38464164880,2,3,0
72.0,153.0,10.9183155759,2,6,0
72.0,156.0,10.0006344185,2,6,0
72.0,159.0,8.05318665195,2,6,0
72.0,162.0,7.25672726803,2,3,0
72.0,165.0,6.37198429791,2,3,0
72.0,168.0,4.11379621028,2,3,0
72.0,171.0,3.68662416195,2,3,0
72.0,174.0,5.27033794507,2,3,0
72.0,177.0,5.9201306954,2,3,0
72.0,180.0,6.03208537311,2,3,0
72.0,183.0,6.78298106350,2,6,1
72.0,186.0,8.46662593939,2,6,0
72.0,189.0,9.29505939330,2,6,0
72.0,192.0,10.4224043991,2,6,0
72.0,195.0,12.4065689102,2,6,0
72.0,198.0,12.3389465075,2,6,1
72.0,201.0,8.03310713945,2,3,0
72.0,204.0,5.69038394498,2,3,0
72.0,207.0,4.70083208697,2,3,0
72.0,210.0,5.02540740360,2,3,0
72.0,213.0,5.42182041956,2,3,0
72.0,216.0,6.39206698216,2,3,0
72.0,219.0,6.36901978524,2,3,1
72.0,222.0,7.35381169553,2,3,1
72.0,225.0,10.9271107063,2,6,0
72.0,228.0,12.8402067513,2,6,0
72.0,231.0,12.2885634502,2,6,0
72.0,234.0,12.8668908947,2,6,0
72.0,237.0,14.0276898934,2,6,0
72.0,240.0,14.0172461382,2,6,0
72.0,243.0,14.0581695610,2,6,0
72.0,246.0,12.7990783461,2,6,0
72.0,249.0,11.4668963994,2,6,0
72.0,252.0,10.3614244527,2,6,0
72.0,255.0,9.70753791302,2,6,0
72.0,258.0,10.8939062672,2,6,0
72.0,261.0,13.0643991548,2,6,0
72.0,264.0,13.0610178783,2,6,0
72.0,267.0,12.5541207655,2,6,0
72.0,270.0,12.3066232436,2,6,0
72.0,273.0,11.5453268140,2,6,0
72.0,276.0,11.4653720559,2,6,0
72.0,279.0,9.22485713456,2,6,1
72.0,282.0,8.40470622460,2,6,1
72.0,285.0,9.21177726060,2,6,0
72.0,288.0,9.99428364410,2,6,1
72.0,291.0,10.5157038094,2,6,0
72.0,294.0,9.69897462155,2,6,0
72.0,297.0,9.57788911417,2,6,0
72.0,300.0,5.60781905530,2,6,0
72.0,303.0,2.68786413922,2,6,1
72.0,306.0,3.97649810194,2,6,0
72.0,309.0,4.19438960964,2,6,0
72.0,312.0,5.73133708957,2,6,0
72.0,315.0,7.42138429760,2,6,0
72.0,318.0,6.80718521894,2,6,0
72.0,321.0,5.61950520335,2,6,1
75.0,0.0,14.9653158897,2,6,0
75.0,3.0,16.1767991239,2,6,0
75.0,6.0,17.1335907005,2,6,0
75.0,9.0,16.8780400025,2,6,0
75.0,12.0,15.7870492868,2,6,0
75.0,15.0,15.5848144796,2,6,0
75.0,18.0,14.5067325237,2,6,0
75.0,21.0,13.5632736669,2,6,0
75.0,24.0,12.5429595645,2,6,0
75.0,27.0,12.4550941903,2,6,0
75.0,30.0,12.6024876527,2,6,0
75.0,33.0,11.5814196877,2,6,0
75.0,36.0,10.8317906033,2,6,0
75.0,39.0,10.1930304026,2,6,0
75.0,42.0,10.6067931013,2,6,0
75.0,45.0,10.4289568674,2,6,0
75.0,48.0,6.87016350796,2,3,0
75.0,51.0,5.19561274938,2,3,0
75.0,54.0,4.45092678293,2,3,0
75.0,57.0,3.54611083253,2,3,0
75.0,60.0,3.44062736025,2,3,0
75.0,63.0,4.59113597846,2,3,0
75.0,66.0,4.85166084981,2,3,0
75.0,69.0,4.76141487953,2,3,0
75.0,72.0,4.72486804196,2,3,0
75.0,75.0,4.86856986902,2,3,0
75.0,78.0,4.78136562633,2,3,0
75.0,81.0,4.52782523133,2,3,0
75.0,84.0,4.74713396761,2,6,0
75.0,87.0,4.76899301519,2,6,0
75.0,90.0,4.04775209790,2,6,0
75.0,93.0,2.73780841174,2,6,0
75.0,96.0,1.28457138594,2,6,0
75.0,99.0,0.800210278233,2,6,0
75.0,102.0,0.378070243748,2,3,0
75,105,0,1,6,0
75.0,108.0,0.268431481798,2,3,0
75.0,111.0,0.509423097941,2,6,0
75.0,114.0,0.775007576294,2,6,0
75.0,117.0,0.765729739064,2,3,0
75.0,120.0,2.62286393006,2,3,0
75.0,123.0,4.31236046491,2,3,0
75.0,126.0,4.75902937825,2,3,0
75.0,129.0,4.78126750408,2,3,1
75.0,132.0,5.05442888992,2,3,0
75.0,135.0,5.43999712624,2,3,0
75.0,138.0,6.33634776924,2,3,0
75.0,141.0,6.20731868198,2,3,0
75.0,144.0,7.28076231119,2,3,0
75.0,147.0,8.40694999982,2,3,0
75.0,150.0,9.03764654977,2,6,0
75.0,153.0,9.88514014063,2,6,0
75.0,156.0,8.87291598882,2,6,0
75.0,159.0,9.06677330916,2,3,0
75.0,162.0,10.8129919043,2,6,0
75.0,165.0,9.42976395016,2,3,0
75.0,168.0,5.62849508910,2,3,0
75.0,171.0,4.17881456733,2,3,0
75.0,174.0,4.10539500657,2,3,0
75.0,177.0,4.89844605273,2,3,0
75.0,180.0,5.49871363604,2,3,1
75.0,183.0,7.52431107557,2,6,0
75.0,186.0,9.70828821743,2,6,0
75.0,189.0,12.2424659733,2,6,0
75.0,192.0,13.1339166619,2,6,0
75.0,195.0,13.2012564947,2,6,0
75.0,198.0,12.1290102088,2,6,1
75.0,201.0,7.26684781194,2,3,0
75.0,204.0,5.74580320056,2,3,0
75.0,207.0,4.85971355583,2,3,0
75.0,210.0,5.56525279832,2,3,0
75.0,213.0,5.87789222981,2,3,0
75.0,216.0,6.34582071045,2,3,1
75.0,219.0,7.03012638942,2,6,1
75.0,222.0,8.70669618373,2,6,0
75.0,225.0,11.6926338932,2,6,0
75.0,228.0,12.9015352963,2,6,0
75.0,231.0,13.2439409243,2,6,0
75.0,234.0,12.5259794508,2,6,0
75.0,237.0,13.1651775268,2,6,0
75.0,240.0,14.4595285357,2,6,0
75.0,243.0,14.4084249224,2,6,0
75.0,246.0,13.2242453711,2,6,0
75.0,249.0,12.0733992582,2,6,0
75.0,252.0,10.7643830817,2,6,0
75.0,255.0,9.72070426277,2,6,0
75.0,258.0,10.9937417392,2,6,0
75.0,261.0,13.3027849883,2,6,0
75.0,264.0,12.8698101357,2,6,0
75.0,267.0,12.3089612124,2,6,0
75.0,270.0,11.8372176568,2,6,0
75.0,273.0,11.8401687644,2,6,0
75.0,276.0,11.1158960977,2,6,0
75.0,279.0,9.53365221917,2,3,0
75.0,282.0,7.30021274159,2,3,1
75.0,285.0,7.27178779079,2,3,0
75.0,288.0,9.37558356524,2,6,1
75.0,291.0,9.42225603588,2,6,0
75.0,294.0,7.58848070815,2,6,0
75.0,297.0,6.34435526147,2,6,0
75.0,300.0,2.87643494950,2,6,1
75.0,303.0,2.85610992991,2,6,1
75.0,306.0,3.81761643551,2,6,0
75.0,309.0,4.43745032747,2,6,0
75.0,312.0,6.50935254521,2,6,0
75.0,315.0,7.36000606009,2,6,0
75.0,318.0,6.58100231434,2,6,1
75.0,321.0,6.19694206382,2,6,1
78.0,0.0,14.9682774177,2,6,0
78.0,3.0,15.9920123017,2,6,0
78.0,6.0,17.1525404433,2,6,0
78.0,9.0,16.9310604856,2,6,0
78.0,12.0,14.0102027198,2,6,0
78.0,15.0,11.6295425311,2,6,0
78.0,18.0,10.4312232743,2,6,0
78.0,21.0,9.42288063603,2,6,0
78.0,24.0,10.2470454718,2,6,0
78.0,27.0,10.7421795659,2,6,0
78.0,30.0,10.5295414399,2,6,0
78.0,33.0,9.43195360850,2,6,0
78.0,36.0,9.51035459640,2,6,0
78.0,39.0,9.47974644721,2,6,0
78.0,42.0,9.87861893111,2,6,0
78.0,45.0,8.73774530745,2,3,0
78.0,48.0,6.02161613829,2,3,0
78.0,51.0,4.69066322362,2,3,0
78.0,54.0,4.25045889565,2,3,0
78.0,57.0,4.87578804894,2,3,0
78.0,60.0,5.12812054153,2,3,0
78.0,63.0,6.07886728570,2,3,0
78.0,66.0,7.37237535985,2,3,0
78.0,69.0,7.12834852741,2,3,0
78.0,72.0,5.56070068770,2,3,0
78.0,75.0,6.23539068839,2,6,0
78.0,78.0,6.51895946537,2,6,0
78.0,81.0,6.83407881571,2,6,0
78.0,84.0,5.62733269040,2,6,0
78.0,87.0,6.09016797576,2,6,0
78.0,90.0,6.18679083942,2,6,0
78.0,93.0,4.87867183119,2,6,0
78.0,96.0,2.93467103286,2,3,0
78.0,99.0,1.42075968719,2,3,0
78.0,102.0,0.851742458916,2,3,0
78.0,105.0,1.11347732491,2,3,0
78.0,108.0,2.55873504066,2,3,0
78.0,111.0,3.34375383465,2,3,0
78.0,114.0,3.08113381346,2,3,0
78.0,117.0,1.67759352869,2,3,0
78.0,120.0,2.74697295331,2,3,0
78.0,123.0,3.35139546631,2,3,0
78.0,126.0,4.23460021274,2,3,0
78.0,129.0,4.85936202358,2,3,1
78.0,132.0,5.72368522028,2,3,1
78.0,135.0,6.52350480656,2,6,1
78.0,138.0,7.90689118575,2,6,0
78.0,141.0,8.46742017695,2,6,0
78.0,144.0,8.87477223004,2,6,0
78.0,147.0,9.07556809770,2,6,0
78.0,150.0,9.55378647142,2,6,0
78.0,153.0,9.42499773790,2,6,0
78.0,156.0,8.92533241235,2,3,0
78.0,159.0,10.8087230214,2,3,0
78.0,162.0,11.8723397417,2,6,0
78.0,165.0,9.97913104917,2,3,0
78.0,168.0,5.98412392187,2,3,0
78.0,171.0,4.24209567848,2,3,0
78.0,174.0,4.57091420164,2,3,0
78.0,177.0,4.77343628313,2,3,0
78.0,180.0,6.46485398165,2,3,1
78.0,183.0,9.80442880472,2,6,0
78.0,186.0,12.1130513393,2,6,0
78.0,189.0,12.8769228748,2,6,0
78.0,192.0,12.8544565951,2,6,0
78.0,195.0,11.7504973930,2,6,1
78.0,198.0,10.3903072411,2,6,1
78.0,201.0,6.46809337783,2,3,0
78.0,204.0,5.80991023278,2,3,0
78.0,207.0,5.25395060330,2,3,0
78.0,210.0,5.83046484137,2,3,0
78.0,213.0,6.03464212681,2,3,0
78.0,216.0,6.27006660577,2,6,1
78.0,219.0,8.04287720358,2,6,0
78.0,222.0,10.1527497020,2,6,0
78.0,225.0,11.9179130313,2,6,0
78.0,228.0,12.3713450616,2,6,0
78.0,231.0,12.9350055432,2,6,0
78.0,234.0,12.6758137239,2,6,0
78.0,237.0,12.0212566110,2,6,0
78.0,240.0,12.2729624763,2,6,0
78.0,243.0,14.4927585093,2,6,0
78.0,246.0,13.1099656058,2,6,0
78.0,249.0,11.3084422837,2,6,0
78.0,252.0,10.1936336838,2,6,0
78.0,255.0,9.52626358012,2,6,0
78.0,258.0,10.7420075569,2,6,0
78.0,261.0,13.6415913660,2,6,0
78.0,264.0,13.9156525126,2,6,0
78.0,267.0,12.8961013952,2,6,0
78.0,270.0,12.4007571078,2,6,0
78.0,273.0,12.3125136120,2,6,0
78.0,276.0,10.9403764698,2,6,0
78.0,279.0,9.57411779824,2,6,0
78.0,282.0,7.83733563381,2,3,1
78.0,285.0,6.38545256154,2,3,1
78.0,288.0,6.47978453869,2,3,0
78.0,291.0,6.28603044940,2,3,1
78.0,294.0,5.77907711585,2,3,1
78.0,297.0,5.63255584771,2,3,1
78.0,300.0,2.87828742674,2,6,0
78.0,303.0,2.69283284809,2,6,0
78.0,306.0,3.51990153148,2,6,0
78.0,309.0,4.53477582554,2,6,0
78.0,312.0,6.23251273895,2,6,0
78.0,315.0,7.12057505954,2,6,0
78.0,318.0,6.73841910437,2,6,1
78.0,321.0,7.17849863300,2,6,0
81.0,0.0,14.9984302047,2,6,0
81.0,3.0,15.2111062739,2,6,0
81.0,6.0,14.7642418789,2,6,0
81.0,9.0,14.7069255576,2,6,0
81.0,12.0,13.8072919810,2,6,0
81.0,15.0,12.8320244085,2,6,0
81.0,18.0,9.90416840202,2,6,0
81.0,21.0,7.64344631635,2,6,0
81.0,24.0,7.67654126681,2,6,0
81.0,27.0,7.98368461253,2,6,0
81.0,30.0,7.85727902390,2,6,0
81.0,33.0,7.69150260543,2,6,0
81.0,36.0,8.20581323974,2,6,0
81.0,39.0,8.42440724598,2,6,0
81.0,42.0,7.22156877031,2,3,0
81.0,45.0,5.25683308756,2,3,0
81.0,48.0,4.52420271988,2,3,0
81.0,51.0,4.31623490341,2,3,0
81.0,54.0,4.70296528882,2,3,0
81.0,57.0,5.72440420024,2,3,0
81.0,60.0,6.86198591233,2,3,0
81.0,63.0,7.13241995087,2,3,0
81.0,66.0,7.92164089119,2,3,0
81.0,69.0,7.77184200428,2,6,0
81.0,72.0,6.31848405797,2,6,0
81.0,75.0,7.48933722876,2,6,0
81.0,78.0,8.31373058638,2,6,0
81.0,81.0,8.88447036564,2,6,0
81.0,84.0,8.98262547128,2,6,0
81.0,87.0,8.99172097035,2,6,0
81.0,90.0,8.76125975916,2,6,0
81.0,93.0,7.49561031163,2,6,0
81.0,96.0,5.25240807614,2,6,0
81.0,99.0,3.30192124461,2,3,0
81.0,102.0,2.63830479762,2,3,0
81.0,105.0,2.81363399635,2,3,0
81.0,108.0,3.22175877535,2,3,0
81.0,111.0,4.30927657196,2,3,0
81.0,114.0,3.82822257650,2,3,0
81.0,117.0,2.50757053256,2,3,0
81.0,120.0,2.57606396589,2,3,0
81.0,123.0,3.46060771694,2,3,0
81.0,126.0,4.68674972620,2,3,0
81.0,129.0,6.05320703189,2,3,0
81.0,132.0,6.17657180247,2,3,0
81.0,135.0,7.00156578498,2,3,0
81.0,138.0,7.96576749436,2,6,1
81.0,141.0,8.46782225650,2,6,0
81.0,144.0,8.93272796963,2,6,0
81.0,147.0,9.14658862626,2,6,0
81.0,150.0,9.47751443651,2,3,0
81.0,153.0,9.19948923771,2,3,0
81.0,156.0,10.3694787864,2,3,0
81.0,159.0,12.2756284678,2,6,0
81.0,162.0,11.5083573546,2,6,0
81.0,165.0,9.38398790947,2,6,0
81.0,168.0,6.56880453147,2,3,0
81.0,171.0,4.40965283752,2,3,0
81.0,174.0,4.94765045365,2,3,0
81.0,177.0,5.80435032457,2,3,0
81.0,180.0,9.03460208058,2,3,1
81.0,183.0,11.0913127284,2,6,0
81.0,186.0,11.1769219781,2,6,0
81.0,189.0,11.7420972488,2,6,0
81.0,192.0,10.8142672337,2,6,0
81.0,195.0,10.7351329659,2,6,1
81.0,198.0,8.53221206583,2,6,0
81.0,201.0,6.56806056941,2,3,0
81.0,204.0,5.93932112496,2,3,0
81.0,207.0,5.33069712149,2,3,0
81.0,210.0,5.44237158990,2,3,0
81.0,213.0,5.92855361615,2,3,1
81.0,216.0,6.41697241061,2,6,1
81.0,219.0,9.07196165257,2,6,0
81.0,222.0,10.7897683593,2,6,0
81.0,225.0,10.9873615275,2,6,0
81.0,228.0,11.2055428483,2,6,0
81.0,231.0,10.7521758806,2,6,0
81.0,234.0,10.5498846171,2,6,0
81.0,237.0,10.9716481770,2,6,0
81.0,240.0,10.6544270305,2,6,0
81.0,243.0,13.0780471693,2,6,0
81.0,246.0,12.2054680490,2,6,0
81.0,249.0,10.7896479345,2,6,0
81.0,252.0,8.99663015941,2,6,0
81.0,255.0,9.03616567690,2,6,0
81.0,258.0,9.68609787252,2,6,0
81.0,261.0,12.3164206372,2,6,0
81.0,264.0,13.3258749565,2,6,0
81.0,267.0,12.3339871838,2,6,0
81.0,270.0,12.9849667224,2,6,0
81.0,273.0,13.1403134581,2,6,0
81.0,276.0,10.6444939965,2,6,0
81.0,279.0,9.18162372482,2,6,0
81.0,282.0,8.41283488139,2,6,1
81.0,285.0,7.99224416292,2,3,1
81.0,288.0,6.1693937559,2,3,1
81.0,291.0,5.89692989509,2,3,0
81.0,294.0,7.36666171240,2,3,0
81.0,297.0,4.86396823790,2,3,0
81.0,300.0,3.29554185582,2,6,0
81.0,303.0,3.40601602312,2,3,0
81.0,306.0,3.24587445242,2,3,0
81.0,309.0,4.42194503134,2,3,0
81.0,312.0,5.91844886330,2,6,0
81.0,315.0,7.15933300661,2,6,0
81.0,318.0,7.29202169189,2,6,1
81.0,321.0,7.33676061791,2,6,0
84.0,0.0,14.8833572927,2,6,0
84.0,3.0,14.5559302631,2,6,0
84.0,6.0,13.9643893311,2,6,0
84.0,9.0,13.6306363621,2,6,0
84.0,12.0,13.3094109536,2,6,0
84.0,15.0,12.8403456932,2,6,0
84.0,18.0,10.5523564677,2,6,0
84.0,21.0,8.07692702672,2,6,0
84.0,24.0,8.36694788044,2,6,0
84.0,27.0,7.88842847933,2,6,0
84.0,30.0,7.68656035987,2,6,0
84.0,33.0,8.73162286914,2,6,0
84.0,36.0,7.78927781305,2,6,0
84.0,39.0,5.88058693726,2,3,0
84.0,42.0,4.62787197092,2,3,0
84.0,45.0,4.67018510560,2,3,0
84.0,48.0,5.96368853442,2,3,0
84.0,51.0,5.51636977178,2,3,0
84.0,54.0,5.58769880070,2,3,0
84.0,57.0,6.73960254507,2,3,0
84.0,60.0,7.65803874732,2,6,0
84.0,63.0,8.10698524199,2,6,0
84.0,66.0,8.10011133309,2,6,0
84.0,69.0,8.69930653164,2,6,0
84.0,72.0,8.65145723157,2,6,0
84.0,75.0,8.91460737832,2,6,0
84.0,78.0,9.03358619178,2,6,0
84.0,81.0,8.96621192842,2,6,0
84.0,84.0,8.92843314287,2,6,0
84.0,87.0,8.89363185964,2,6,0
84.0,90.0,8.87519350065,2,6,0
84.0,93.0,8.80782398457,2,6,0
84.0,96.0,8.14315417563,2,6,0
84.0,99.0,6.11588014037,2,6,0
84.0,102.0,4.63990579363,2,3,0
84.0,105.0,4.86292750722,2,3,0
84.0,108.0,5.83453382657,2,6,0
84.0,111.0,6.63014141142,2,6,0
84.0,114.0,5.42597883488,2,6,0
84.0,117.0,4.16726477936,2,6,0
84.0,120.0,4.02947239891,2,3,0
84.0,123.0,4.48574452638,2,3,0
84.0,126.0,5.48894340439,2,3,0
84.0,129.0,6.83915115058,2,6,0
84.0,132.0,7.64377185747,2,6,0
84.0,135.0,7.13149515676,2,3,0
84.0,138.0,7.76129669835,2,3,1
84.0,141.0,8.48620131622,2,6,0
84.0,144.0,8.87133431497,2,3,0
84.0,147.0,9.00638652858,2,3,0
84.0,150.0,9.09819841407,2,3,0
84.0,153.0,9.77027907356,2,3,0
84.0,156.0,11.0982867858,2,6,0
84.0,159.0,11.6261501312,2,6,0
84.0,162.0,11.4483320491,2,6,0
84.0,165.0,9.52832796087,2,6,0
84.0,168.0,7.29787445066,2,3,0
84.0,171.0,4.67753348981,2,3,0
84.0,174.0,5.02838564612,2,3,0
84.0,177.0,6.48180888726,2,3,0
84.0,180.0,9.05007496840,2,6,1
84.0,183.0,11.0184606439,2,6,0
84.0,186.0,10.5831468923,2,6,0
84.0,189.0,10.3355819336,2,6,0
84.0,192.0,11.1088130286,2,6,1
84.0,195.0,9.19635524582,2,6,1
84.0,198.0,6.84975383064,2,3,0
84.0,201.0,6.25386782343,2,3,0
84.0,204.0,5.91720798625,2,3,0
84.0,207.0,5.43360531366,2,3,0
84.0,210.0,5.28162863580,2,3,0
84.0,213.0,5.75742090706,2,3,1
84.0,216.0,6.87200645953,2,6,0
84.0,219.0,9.02233818130,2,6,0
84.0,222.0,10.6006863245,2,6,0
84.0,225.0,11.2326269199,2,6,0
84.0,228.0,10.1794644881,2,6,0
84.0,231.0,10.1548946784,2,6,0
84.0,234.0,10.1463286824,2,6,0
84.0,237.0,10.7147262973,2,6,0
84.0,240.0,11.5509713097,2,6,0
84.0,243.0,10.3668169256,2,6,0
84.0,246.0,9.81987637180,2,6,0
84.0,249.0,9.21932172806,2,6,0
84.0,252.0,8.89877176990,2,6,0
84.0,255.0,8.80011136756,2,6,0
84.0,258.0,8.79877289158,2,6,0
84.0,261.0,8.99152990411,2,6,0
84.0,264.0,11.2925890467,2,6,0
84.0,267.0,12.3700693201,2,6,0
84.0,270.0,13.0711174132,2,6,0
84.0,273.0,11.9823674193,2,6,0
84.0,276.0,10.7647039527,2,6,0
84.0,279.0,9.99666387509,2,6,0
84.0,282.0,9.07665759948,2,6,0
84.0,285.0,9.02158384163,2,6,0
84.0,288.0,8.25197041719,2,6,1
84.0,291.0,5.68814346465,2,3,1
84.0,294.0,5.61201064008,2,3,0
84.0,297.0,4.34555208701,2,3,0
84.0,300.0,4.10373911889,2,3,0
84.0,303.0,3.88344350239,2,3,0
84.0,306.0,4.37986615257,2,3,1
84.0,309.0,4.97960180303,2,3,1
84.0,312.0,6.49041075080,2,6,1
84.0,315.0,8.07849382827,2,6,1
84.0,318.0,9.03582642536,2,6,1
84.0,321.0,9.14484059837,2,6,0
87.0,0.0,14.3714969115,2,6,0
87.0,3.0,13.7435156414,2,6,0
87.0,6.0,13.3486328393,2,6,0
87.0,9.0,12.9533114453,2,6,0
87.0,12.0,12.7571074524,2,6,0
87.0,15.0,12.2983643021,2,6,0
87.0,18.0,10.7909616196,2,6,0
87.0,21.0,8.38565510752,2,6,0
87.0,24.0,8.50671433727,2,6,0
87.0,27.0,8.97770551963,2,6,0
87.0,30.0,9.21650722066,2,6,0
87.0,33.0,9.49798249161,2,6,0
87.0,36.0,8.60474751746,2,6,0
87.0,39.0,7.18448212971,2,3,0
87.0,42.0,5.87959481686,2,6,0
87.0,45.0,6.96369711693,2,6,0
87.0,48.0,7.20871806415,2,6,0
87.0,51.0,6.72484028103,2,6,0
87.0,54.0,6.55713930137,2,3,0
87.0,57.0,6.74580657444,2,3,0
87.0,60.0,7.12472772758,2,3,0
87.0,63.0,7.53251717248,2,6,0
87.0,66.0,8.01454024096,2,6,0
87.0,69.0,8.59491155516,2,6,0
87.0,72.0,9.00986364695,2,6,0
87.0,75.0,9.00931311417,2,6,0
87.0,78.0,9.03662781226,2,6,0
87.0,81.0,9.02097451133,2,6,0
87.0,84.0,8.99691754628,2,6,0
87.0,87.0,8.89526631539,2,6,0
87.0,90.0,8.89885329993,2,6,0
87.0,93.0,8.95865646207,2,6,0
87.0,96.0,8.91775501685,2,6,0
87.0,99.0,7.91952890532,2,6,0
87.0,102.0,7.75859706594,2,6,0
87.0,105.0,7.80031335711,2,6,0
87.0,108.0,8.71141731525,2,6,0
87.0,111.0,8.88823606398,2,6,0
87.0,114.0,7.80107977837,2,6,0
87.0,117.0,6.67466147228,2,6,0
87.0,120.0,6.13037465609,2,6,0
87.0,123.0,5.49423191005,2,3,0
87.0,126.0,6.48228931190,2,3,0
87.0,129.0,7.75658706659,2,6,0
87.0,132.0,8.99368601975,2,6,0
87.0,135.0,8.55299357026,2,3,0
87.0,138.0,8.15042017456,2,3,1
87.0,141.0,8.68577151683,2,3,0
87.0,144.0,8.95751134603,2,3,0
87.0,147.0,9.00440135577,2,3,0
87.0,150.0,9.64512102726,2,3,0
87.0,153.0,11.8889822018,2,6,0
87.0,156.0,12.6847245075,2,6,0
87.0,159.0,12.9710852844,2,6,0
87.0,162.0,11.3085470726,2,6,0
87.0,165.0,9.44137313822,2,6,0
87.0,168.0,7.20433036985,2,3,0
87.0,171.0,5.55446017541,2,3,0
87.0,174.0,5.36720734895,2,3,0
87.0,177.0,6.30784094417,2,3,0
87.0,180.0,7.06570039894,2,3,1
87.0,183.0,9.15973733115,2,3,0
87.0,186.0,9.86649571897,2,6,0
87.0,189.0,9.25472744263,2,6,1
87.0,192.0,9.01402160186,2,6,1
87.0,195.0,7.31265596748,2,3,0
87.0,198.0,6.71020052738,2,3,0
87.0,201.0,6.40898796078,2,3,0
87.0,204.0,6.12992862519,2,3,0
87.0,207.0,5.81189093436,2,3,0
87.0,210.0,5.40146732465,2,3,0
87.0,213.0,5.80950767069,2,3,0
87.0,216.0,6.86165352696,2,6,1
87.0,219.0,8.94738147909,2,6,0
87.0,222.0,10.1735506136,2,6,0
87.0,225.0,10.6253948824,2,6,0
87.0,228.0,10.7282732568,2,6,0
87.0,231.0,11.1600138348,2,6,0
87.0,234.0,10.3775566999,2,6,0
87.0,237.0,10.5016900020,2,6,0
87.0,240.0,10.2868670323,2,6,0
87.0,243.0,9.66919769701,2,6,0
87.0,246.0,9.13005604345,2,6,0
87.0,249.0,10.9667893366,2,6,0
87.0,252.0,10.5018286490,2,6,1
87.0,255.0,9.70511329767,2,6,1
87.0,258.0,8.90039195517,2,6,1
87.0,261.0,8.79869386442,2,6,0
87.0,264.0,10.2513645675,2,6,1
87.0,267.0,13.5796857526,2,6,1
87.0,270.0,13.1777881247,2,6,0
87.0,273.0,11.7307617934,2,6,0
87.0,276.0,11.4681830269,2,6,0
87.0,279.0,11.5749809506,2,6,0
87.0,282.0,10.7832240404,2,6,0
87.0,285.0,9.14477455896,2,6,0
87.0,288.0,8.01920912329,2,3,1
87.0,291.0,5.66805431399,2,3,0
87.0,294.0,4.70903729188,2,3,1
87.0,297.0,4.87774559256,2,3,1
87.0,300.0,4.76481016617,2,3,1
87.0,303.0,4.67035162498,2,3,1
87.0,306.0,4.56624455309,2,3,0
87.0,309.0,6.77378345279,2,3,0
87.0,312.0,7.43565718043,2,6,1
87.0,315.0,9.00584056462,2,6,1
87.0,318.0,10.0948594969,2,6,1
87.0,321.0,9.99222565705,2,6,0
90.0,0.0,13.5095134558,2,6,0
90.0,3.0,12.8093521722,2,6,0
90.0,6.0,12.8472938424,2,6,0
90.0,9.0,12.8007339216,2,6,0
90.0,12.0,11.0450527981,2,6,0
90.0,15.0,10.5477573871,2,6,0
90.0,18.0,10.9175070359,2,6,0
90.0,21.0,9.95395902821,2,6,0
90.0,24.0,9.92702755705,2,6,0
90.0,27.0,11.0917868574,2,6,0
90.0,30.0,11.7014867407,2,6,0
90.0,33.0,11.2479907287,2,6,0
90.0,36.0,9.68979698668,2,6,0
90.0,39.0,8.26394347482,2,6,0
90.0,42.0,8.33978107015,2,6,0
90.0,45.0,8.91277282556,2,6,0
90.0,48.0,9.05414648931,2,6,0
90.0,51.0,8.27312810437,2,6,0
90.0,54.0,7.16960245452,2,6,0
90.0,57.0,6.37569353383,2,6,0
90.0,60.0,6.82335254514,2,3,0
90.0,63.0,7.74864281400,2,3,0
90.0,66.0,8.11505601266,2,3,0
90.0,69.0,8.77781551349,2,6,0
90.0,72.0,9.21817369042,2,6,0
90.0,75.0,9.22587060216,2,6,0
90.0,78.0,9.13845718071,2,6,0
90.0,81.0,9.043503576,2,6,0
90.0,84.0,9.02890429628,2,6,0
90.0,87.0,8.96408662912,2,6,0
90.0,90.0,8.96557572828,2,6,0
90.0,93.0,8.98890757674,2,6,0
90.0,96.0,8.97412086022,2,6,0
90.0,99.0,9.01544828160,2,6,0
90.0,102.0,9.02037992776,2,6,0
90.0,105.0,9.04109492528,2,6,0
90.0,108.0,9.02072269973,2,6,0
90.0,111.0,8.98977691053,2,6,0
90.0,114.0,9.01692354765,2,6,0
90.0,117.0,8.83360990651,2,6,0
90.0,120.0,8.09835283189,2,6,0
90.0,123.0,7.67402477365,2,6,0
90.0,126.0,7.84481982346,2,6,0
90.0,129.0,8.81133685553,2,6,0
90.0,132.0,9.76824499428,2,6,0
90.0,135.0,9.25720586012,2,6,0
90.0,138.0,8.59981980283,2,3,0
90.0,141.0,8.89137026920,2,3,1
90.0,144.0,8.91590807036,2,3,0
90.0,147.0,9.40290579688,2,3,0
90.0,150.0,11.5681010814,2,6,0
90.0,153.0,12.9532353855,2,6,0
90.0,156.0,12.8530785624,2,6,0
90.0,159.0,12.0034352735,2,6,0
90.0,162.0,8.92969956028,2,6,0
90.0,165.0,8.21245492110,2,6,0
90.0,168.0,7.36069097318,2,3,0
90.0,171.0,6.79225516063,2,6,0
90.0,174.0,6.30877401117,2,3,0
90.0,177.0,6.37654382260,2,3,0
90.0,180.0,6.71676115168,2,3,1
90.0,183.0,7.12171148745,2,3,0
90.0,186.0,7.96482731450,2,3,0
90.0,189.0,8.60913058136,2,6,1
90.0,192.0,8.37850464330,2,6,0
90.0,195.0,7.46470398090,2,3,0
90.0,198.0,6.71269158673,2,3,0
90.0,201.0,6.37643165359,2,3,0
90.0,204.0,5.86605158594,2,3,0
90.0,207.0,5.62589004431,2,3,0
90.0,210.0,5.48318860529,2,3,0
90.0,213.0,5.70914391129,2,3,0
90.0,216.0,6.70657981142,2,3,1
90.0,219.0,9.12303462655,2,6,0
90.0,222.0,11.4201936906,2,6,0
90.0,225.0,11.6320214204,2,6,0
90.0,228.0,11.2970572440,2,6,0
90.0,231.0,9.60952802920,2,6,0
90.0,234.0,9.01409443507,2,6,0
90.0,237.0,8.66724502001,2,6,0
90.0,240.0,8.47911043912,2,3,0
90.0,243.0,9.39458500528,2,6,0
90.0,246.0,9.42909099459,2,6,0
90.0,249.0,8.21315631705,2,3,1
90.0,252.0,9.61953314412,2,6,0
90.0,255.0,10.9976343369,2,6,0
90.0,258.0,10.9354396622,2,6,0
90.0,261.0,9.29274303861,2,6,1
90.0,264.0,9.16662052298,2,6,1
90.0,267.0,12.2299373058,2,6,1
90.0,270.0,12.1549197719,2,6,0
90.0,273.0,12.5646483180,2,6,0
90.0,276.0,12.2115849863,2,6,0
90.0,279.0,11.1913488334,2,6,0
90.0,282.0,10.5007786173,2,6,0
90.0,285.0,9.88918462416,2,6,0
90.0,288.0,9.61169495878,2,6,1
90.0,291.0,6.38067948787,2,3,0
90.0,294.0,4.67320407445,2,3,0
90.0,297.0,4.56807150556,2,3,0
90.0,300.0,5.09127548590,2,3,0
90.0,303.0,5.06143631645,2,3,0
90.0,306.0,5.81019487040,2,3,0
90.0,309.0,7.79329769534,2,6,0
90.0,312.0,9.13681586064,2,6,0
90.0,315.0,10.0330211244,2,6,1
90.0,318.0,10.3331785695,2,6,0
90.0,321.0,10.0099543270,2,6,0
93.0,0.0,12.6028859489,2,6,0
93.0,3.0,12.2538469294,2,6,0
93.0,6.0,11.3985754300,2,6,0
93.0,9.0,10.6679092958,2,6,0
93.0,12.0,10.6945114724,2,6,0
93.0,15.0,11.9464867250,2,6,0
93.0,18.0,12.7669162950,2,6,0
93.0,21.0,12.3547053267,2,6,0
93.0,24.0,11.5930508355,2,6,0
93.0,27.0,11.3325320572,2,6,0
93.0,30.0,12.7833862332,2,6,0
93.0,33.0,11.7944968062,2,6,0
93.0,36.0,10.1889869722,2,6,0
93.0,39.0,8.54301037003,2,6,0
93.0,42.0,9.24015182102,2,6,0
93.0,45.0,9.75118252874,2,6,0
93.0,48.0,8.58792411923,2,6,0
93.0,51.0,8.94036444248,2,6,0
93.0,54.0,6.51596621892,2,6,0
93.0,57.0,6.41136288793,2,6,0
93.0,60.0,7.91423988845,2,6,0
93.0,63.0,8.56186762875,2,6,0
93.0,66.0,8.59455175865,2,3,0
93.0,69.0,9.08583351731,2,6,0
93.0,72.0,9.31476479102,2,6,0
93.0,75.0,9.27483007588,2,6,0
93.0,78.0,9.31929084862,2,6,0
93.0,81.0,9.15099897111,2,6,0
93.0,84.0,9.12395930172,2,6,0
93.0,87.0,8.97992479249,2,6,0
93.0,90.0,9.00156370498,2,6,0
93.0,93.0,9.03215284874,2,6,0
93.0,96.0,8.94911493873,2,6,0
93.0,99.0,9.01488869938,2,6,0
93.0,102.0,9.05027823560,2,6,0
93.0,105.0,9.12396244442,2,6,0
93.0,108.0,9.10715728065,2,6,0
93.0,111.0,9.04882015226,2,6,0
93.0,114.0,9.02163655782,2,6,0
93.0,117.0,9.03357276279,2,6,0
93.0,120.0,8.98121866659,2,6,0
93.0,123.0,8.91400993017,2,6,0
93.0,126.0,8.89676441254,2,6,0
93.0,129.0,9.25016371830,2,6,0
93.0,132.0,9.67484008905,2,6,0
93.0,135.0,8.95362477800,2,6,0
93.0,138.0,8.72792588889,2,6,0
93.0,141.0,8.93236131535,2,3,1
93.0,144.0,9.12887187531,2,3,0
93.0,147.0,10.7604165468,2,6,0
93.0,150.0,11.3323469142,2,6,0
93.0,153.0,12.0787731758,2,6,0
93.0,156.0,11.1221027538,2,6,0
93.0,159.0,9.31560355161,2,6,0
93.0,162.0,8.61588705051,2,6,0
93.0,165.0,7.25993127604,2,3,0
93.0,168.0,6.90641639466,2,3,0
93.0,171.0,6.58062880033,2,3,0
93.0,174.0,6.50661839211,2,3,0
93.0,177.0,6.58943735033,2,3,0
93.0,180.0,6.83644463309,2,3,1
93.0,183.0,6.98185503926,2,3,0
93.0,186.0,7.24590390999,2,3,0
93.0,189.0,8.09021198196,2,3,1
93.0,192.0,7.97842534783,2,3,0
93.0,195.0,7.50220268769,2,3,0
93.0,198.0,6.88399766167,2,3,0
93.0,201.0,6.68997383846,2,3,0
93.0,204.0,5.91542699942,2,3,0
93.0,207.0,5.50398105827,2,3,0
93.0,210.0,5.43911166149,2,3,0
93.0,213.0,5.69777439008,2,3,1
93.0,216.0,7.02298653379,2,3,0
93.0,219.0,8.79898375601,2,6,0
93.0,222.0,10.7317589768,2,6,0
93.0,225.0,12.0709324248,2,6,0
93.0,228.0,11.1015455883,2,6,0
93.0,231.0,10.9481149106,2,6,0
93.0,234.0,9.45552181402,2,6,0
93.0,237.0,8.3920630199,2,6,0
93.0,240.0,8.21602421076,2,6,0
93.0,243.0,8.68840556669,2,6,0
93.0,246.0,8.66522495887,2,6,0
93.0,249.0,8.20627203825,2,3,1
93.0,252.0,7.82594927531,2,3,0
93.0,255.0,7.87738871271,2,3,0
93.0,258.0,10.9377059034,2,6,0
93.0,261.0,9.88675560425,2,6,0
93.0,264.0,7.18471942179,2,3,0
93.0,267.0,7.90150509473,2,3,0
93.0,270.0,11.7236475541,2,6,1
93.0,273.0,11.5988688365,2,6,0
93.0,276.0,11.2934761757,2,6,0
93.0,279.0,10.7027916055,2,6,0
93.0,282.0,9.59607623596,2,6,0
93.0,285.0,9.45725222407,2,6,0
93.0,288.0,8.82105659101,2,6,1
93.0,291.0,4.40831214903,2,3,0
93.0,294.0,3.94524163322,2,3,0
93.0,297.0,4.50607090017,2,3,0
93.0,300.0,5.06077522238,2,3,0
93.0,303.0,5.41248216281,2,3,0
93.0,306.0,8.54468228589,2,3,0
93.0,309.0,8.98895172561,2,6,0
93.0,312.0,10.6640678375,2,6,0
93.0,315.0,12.4496954905,2,6,1
93.0,318.0,10.9285070825,2,6,0
93.0,321.0,9.51469236275,2,6,0
96.0,0.0,12.4235960766,2,6,0
96.0,3.0,12.2049262890,2,6,0
96.0,6.0,11.9076830737,2,6,0
96.0,9.0,11.8430037605,2,6,0
96.0,12.0,12.2239517951,2,6,0
96.0,15.0,12.8796292325,2,6,0
96.0,18.0,12.6973479698,2,6,0
96.0,21.0,13.4554710729,2,6,0
96.0,24.0,13.6695964347,2,6,0
96.0,27.0,12.8022828746,2,6,0
96.0,30.0,12.6789462291,2,6,0
96.0,33.0,12.2043324623,2,6,0
96.0,36.0,12.3991297938,2,6,0
96.0,39.0,11.2081121990,2,6,0
96.0,42.0,8.92100573551,2,6,0
96.0,45.0,9.34230166397,2,6,0
96.0,48.0,8.58073874177,2,6,0
96.0,51.0,6.45074660177,2,6,0
96.0,54.0,6.36818648341,2,6,0
96.0,57.0,6.65682687822,2,6,0
96.0,60.0,9.28146674602,2,6,0
96.0,63.0,9.08453700066,2,6,0
96.0,66.0,9.37147827935,2,3,0
96.0,69.0,9.80758609728,2,6,0
96.0,72.0,10.1149297307,2,6,0
96.0,75.0,9.585209586,2,6,0
96.0,78.0,9.34737136357,2,6,0
96.0,81.0,9.17557045077,2,6,0
96.0,84.0,9.14871701203,2,6,0
96.0,87.0,9.00014974579,2,6,0
96.0,90.0,9.07575165308,2,6,0
96.0,93.0,9.10749547886,2,6,0
96.0,96.0,9.16664862297,2,6,0
96.0,99.0,9.19253981790,2,6,0
96.0,102.0,9.22080564498,2,6,0
96.0,105.0,9.26617635611,2,6,0
96.0,108.0,9.19388019186,2,6,0
96.0,111.0,9.16850875379,2,6,0
96.0,114.0,9.04382145863,2,6,0
96.0,117.0,9.02488490359,2,6,0
96.0,120.0,9.02234126256,2,6,0
96.0,123.0,9.01203708243,2,6,0
96.0,126.0,8.98161304936,2,6,0
96.0,129.0,9.04523305704,2,6,0
96.0,132.0,9.26630403456,2,6,0
96.0,135.0,9.10587720257,2,6,0
96.0,138.0,8.81910974787,2,6,0
96.0,141.0,8.87815361459,2,3,1
96.0,144.0,9.79821737482,2,3,0
96.0,147.0,10.2774637547,2,6,0
96.0,150.0,10.2587452976,2,6,0
96.0,153.0,9.80079805917,2,6,0
96.0,156.0,9.10134958005,2,6,0
96.0,159.0,8.56594770283,2,6,0
96.0,162.0,7.43342433688,2,3,0
96.0,165.0,6.91554053287,2,3,0
96.0,168.0,6.85311004230,2,3,0
96.0,171.0,6.73098348853,2,3,0
96.0,174.0,6.83734228100,2,3,1
96.0,177.0,6.98331475334,2,3,1
96.0,180.0,6.96509327732,2,3,1
96.0,183.0,6.88912891063,2,3,0
96.0,186.0,6.98456454770,2,3,0
96.0,189.0,7.20636545269,2,3,1
96.0,192.0,7.41936904970,2,3,0
96.0,195.0,7.67696124224,2,3,0
96.0,198.0,7.48099417817,2,3,0
96.0,201.0,7.88008707081,2,3,0
96.0,204.0,6.14064654348,2,3,0
96.0,207.0,5.48596415032,2,3,0
96.0,210.0,5.46884094417,2,3,0
96.0,213.0,5.80292876224,2,3,1
96.0,216.0,7.78492328953,2,6,0
96.0,219.0,8.98060455405,2,6,0
96.0,222.0,10.4849924709,2,6,0
96.0,225.0,11.2899587867,2,6,0
96.0,228.0,11.1175636356,2,6,0
96.0,231.0,11.1710396841,2,6,0
96.0,234.0,9.38151943075,2,6,0
96.0,237.0,8.18265764484,2,6,0
96.0,240.0,8.04449432613,2,6,0
96.0,243.0,8.18336081826,2,6,0
96.0,246.0,8.23107719700,2,6,0
96.0,249.0,8.80744384780,2,6,1
96.0,252.0,9.08806037819,2,6,0
96.0,255.0,8.56785303434,2,6,0
96.0,258.0,6.01938527371,2,3,0
96.0,261.0,4.54328981766,2,3,0
96.0,264.0,3.83818836387,2,4,0
96.0,267.0,5.87664065169,2,3,0
96.0,270.0,9.45229734393,2,6,1
96.0,273.0,10.8320394503,2,6,0
96.0,276.0,10.2100326424,2,6,0
96.0,279.0,10.0553993050,2,6,0
96.0,282.0,8.85929073061,2,6,0
96.0,285.0,7.94972565760,2,6,0
96.0,288.0,5.45257231308,2,3,1
96.0,291.0,2.60872026093,2,3,0
96.0,294.0,3.54870687369,2,3,0
96.0,297.0,5.02233173768,2,3,0
96.0,300.0,5.67223392485,2,3,0
96.0,303.0,6.72035127708,2,3,0
96.0,306.0,10.2947198597,2,6,0
96.0,309.0,11.6797918043,2,6,1
96.0,312.0,12.1235936665,2,6,1
96.0,315.0,10.6567450184,2,6,1
96.0,318.0,7.68533366209,2,6,0
96.0,321.0,5.41593468650,2,6,0
99.0,0.0,12.6598096264,2,6,0
99.0,3.0,12.7381092208,2,6,0
99.0,6.0,12.9194733341,2,6,0
99.0,9.0,12.8020704051,2,6,0
99.0,12.0,12.9180582334,2,6,0
99.0,15.0,12.7368743604,2,6,0
99.0,18.0,11.7453965980,2,6,0
99.0,21.0,11.9581302112,2,6,0
99.0,24.0,12.6431214700,2,6,0
99.0,27.0,13.5489965325,2,6,0
99.0,30.0,13.4800310308,2,6,0
99.0,33.0,13.7275457342,2,6,0
99.0,36.0,13.5260879315,2,6,0
99.0,39.0,11.5692460223,2,6,0
99.0,42.0,8.85298456154,2,6,0
99.0,45.0,8.85830946646,2,6,0
99.0,48.0,7.91281275840,2,6,0
99.0,51.0,6.54817452775,2,6,0
99.0,54.0,6.37347448212,2,6,0
99.0,57.0,8.07572842578,2,6,0
99.0,60.0,10.8989584369,2,6,0
99.0,63.0,11.7860488123,2,6,0
99.0,66.0,12.5459109015,2,6,0
99.0,69.0,12.8293150787,2,6,0
99.0,72.0,12.7188132381,2,6,0
99.0,75.0,10.5606400023,2,6,0
99.0,78.0,9.47885871624,2,6,0
99.0,81.0,9.36509514976,2,6,0
99.0,84.0,9.11879621675,2,6,0
99.0,87.0,8.99305423547,2,6,0
99.0,90.0,9.17667018671,2,6,0
99.0,93.0,9.18965554756,2,6,0
99.0,96.0,9.24283237957,2,6,0
99.0,99.0,9.17782615567,2,6,0
99.0,102.0,9.26670858766,2,6,0
99.0,105.0,9.26912799182,2,6,0
99.0,108.0,9.19194284794,2,6,0
99.0,111.0,9.21093248514,2,6,0
99.0,114.0,9.36262016864,2,6,0
99.0,117.0,9.22099245033,2,6,0
99.0,120.0,9.13007930146,2,6,0
99.0,123.0,9.08116560968,2,6,0
99.0,126.0,9.07674912135,2,6,0
99.0,129.0,9.04238069495,2,6,0
99.0,132.0,9.18145592002,2,6,0
99.0,135.0,9.14928363421,2,6,0
99.0,138.0,8.99558676339,2,6,0
99.0,141.0,8.95535289481,2,3,0
99.0,144.0,9.27514526500,2,3,1
99.0,147.0,9.51738076492,2,3,1
99.0,150.0,9.55196507007,2,6,0
99.0,153.0,9.19516135229,2,6,0
99.0,156.0,8.60791074911,2,6,0
99.0,159.0,7.80493887824,2,3,0
99.0,162.0,6.93878783141,2,3,0
99.0,165.0,6.85167524611,2,3,0
99.0,168.0,6.88012241526,2,3,1
99.0,171.0,6.82776833972,2,3,1
99.0,174.0,6.99776080450,2,3,0
99.0,177.0,7.38197399825,2,3,0
99.0,180.0,7.26642931041,2,6,0
99.0,183.0,7.14666079227,2,3,0
99.0,186.0,7.16081316393,2,3,0
99.0,189.0,7.23484180310,2,3,1
99.0,192.0,7.23107184717,2,3,0
99.0,195.0,7.44999186721,2,3,0
99.0,198.0,7.70563666313,2,3,0
99.0,201.0,7.24958783228,2,3,0
99.0,204.0,5.84835230421,2,3,0
99.0,207.0,5.54826472330,2,3,0
99.0,210.0,5.86695418906,2,3,1
99.0,213.0,5.99776056459,2,3,1
99.0,216.0,8.38511293082,2,6,0
99.0,219.0,9.60879892715,2,6,0
99.0,222.0,9.53408437561,2,6,0
99.0,225.0,11.0975904701,2,6,0
99.0,228.0,12.3267550336,2,6,0
99.0,231.0,10.6776697808,2,6,0
99.0,234.0,9.29027957389,2,6,0
99.0,237.0,8.61269986825,2,6,0
99.0,240.0,8.49627981815,2,6,0
99.0,243.0,8.43650783602,2,6,0
99.0,246.0,9.38822562342,2,6,1
99.0,249.0,9.37133471775,2,6,0
99.0,252.0,9.45581686992,2,6,0
99.0,255.0,9.54758934333,2,6,0
99.0,258.0,7.24429459294,2,3,0
99.0,261.0,3.55884767396,2,3,0
99.0,264.0,1.58453158028,2,4,0
99.0,267.0,2.28996425268,2,4,0
99.0,270.0,4.39377996366,2,4,0
99.0,273.0,8.77800070180,2,6,1
99.0,276.0,8.55084825471,2,6,0
99.0,279.0,8.13663537501,2,6,0
99.0,282.0,6.70267485863,2,6,0
99.0,285.0,4.35258871566,2,3,1
99.0,288.0,2.09556302380,2,3,0
99.0,291.0,1.92153410457,2,6,0
99.0,294.0,5.01128645461,2,6,0
99.0,297.0,6.09588765819,2,6,0
99.0,300.0,6.46553913767,2,6,0
99.0,303.0,7.79656157270,2,6,0
99.0,306.0,11.3518557245,2,6,0
99.0,309.0,10.2913535267,2,6,1
99.0,312.0,7.82770769189,2,6,0
99.0,315.0,6.40854325140,2,6,0
99.0,318.0,3.76309611210,2,6,0
99.0,321.0,1.56431645108,2,6,0
102.0,0.0,12.9929350184,2,6,0
102.0,3.0,13.1315865638,2,6,0
102.0,6.0,13.0740541117,2,6,0
102.0,9.0,13.0575715035,2,6,0
102.0,12.0,13.0270351976,2,6,0
102.0,15.0,11.7990230064,2,6,0
102.0,18.0,10.3815138335,2,6,0
102.0,21.0,10.5321278961,2,6,0
102.0,24.0,11.3474371909,2,6,0
102.0,27.0,12.2402759242,2,6,0
102.0,30.0,13.1885140888,2,6,0
102.0,33.0,13.1238106217,2,6,0
102.0,36.0,12.4642209970,2,6,0
102.0,39.0,10.5535209540,2,6,0
102.0,42.0,8.47684352789,2,6,0
102.0,45.0,8.46179850211,2,6,0
102.0,48.0,7.88769454651,2,6,0
102.0,51.0,6.73362963451,2,6,0
102.0,54.0,6.60154943350,2,6,0
102.0,57.0,10.6725955771,2,6,0
102.0,60.0,13.1423678828,2,6,0
102.0,63.0,14.5560452876,2,6,0
102.0,66.0,14.9495752176,2,6,0
102.0,69.0,14.6293627711,2,6,0
102.0,72.0,14.7169119779,2,6,0
102.0,75.0,12.9230002121,2,6,0
102.0,78.0,9.52008133594,2,6,0
102.0,81.0,9.48928549123,2,6,0
102.0,84.0,8.98675607232,2,6,0
102.0,87.0,9.15300626343,2,6,0
102.0,90.0,9.39095677097,2,6,0
102.0,93.0,9.26992288679,2,6,0
102.0,96.0,9.36574952068,2,6,0
102.0,99.0,9.26590767531,2,6,0
102.0,102.0,9.29179599589,2,6,0
102.0,105.0,9.23845924075,2,6,0
102.0,108.0,9.16196185132,2,6,0
102.0,111.0,9.15144362655,2,6,0
102.0,114.0,8.92829270691,2,6,0
102.0,117.0,9.34474379570,2,6,0
102.0,120.0,9.25628905951,2,6,0
102.0,123.0,9.12800121769,2,6,0
102.0,126.0,9.25098425613,2,6,0
102.0,129.0,9.13246235165,2,6,0
102.0,132.0,9.06676829933,2,6,0
102.0,135.0,9.07975753845,2,6,0
102.0,138.0,9.04767568055,2,6,0
102.0,141.0,9.01420272522,2,3,0
102.0,144.0,9.31233382650,2,3,0
102.0,147.0,10.2107771573,2,3,1
102.0,150.0,10.3361663381,2,3,1
102.0,153.0,9.28442234482,2,3,0
102.0,156.0,7.93697918971,2,3,0
102.0,159.0,7.03096382865,2,3,0
102.0,162.0,6.84244348331,2,3,1
102.0,165.0,6.86001939901,2,3,1
102.0,168.0,6.83203369325,2,3,0
102.0,171.0,6.90126676231,2,3,0
102.0,174.0,7.11610157350,2,3,0
102.0,177.0,7.88114709354,2,6,0
102.0,180.0,9.01632448016,2,6,0
102.0,183.0,8.86810132628,2,6,0
102.0,186.0,8.08755408806,2,6,0
102.0,189.0,7.22091709179,2,3,1
102.0,192.0,6.96544205747,2,3,0
102.0,195.0,7.00214074895,2,3,0
102.0,198.0,7.17892098546,2,3,0
102.0,201.0,6.86989861970,2,3,0
102.0,204.0,5.89949604767,2,3,1
102.0,207.0,5.87049149657,2,3,1
102.0,210.0,6.96496913772,2,3,0
102.0,213.0,8.42383686977,2,6,0
102.0,216.0,9.62520544952,2,6,0
102.0,219.0,10.2509053059,2,6,0
102.0,222.0,10.7815589588,2,6,0
102.0,225.0,12.7364283232,2,6,0
102.0,228.0,11.6613150271,2,6,0
102.0,231.0,11.4650927964,2,6,0
102.0,234.0,11.4956189673,2,6,1
102.0,237.0,11.0558028968,2,6,1
102.0,240.0,9.85835953781,2,6,1
102.0,243.0,8.40910871323,2,3,1
102.0,246.0,9.20270480492,2,6,0
102.0,249.0,10.1003369005,2,6,0
102.0,252.0,10.0586930526,2,6,0
102.0,255.0,10.1288361489,2,6,0
102.0,258.0,10.1132735992,2,6,0
102.0,261.0,4.90326591465,2,4,0
102.0,264.0,2.05425903562,2,4,0
102.0,267.0,0.176342685928,2,4,0
102.0,270.0,0.235442512564,2,4,1
102.0,273.0,3.17997702112,2,4,1
102.0,276.0,6.49537245450,2,4,1
102.0,279.0,6.22464996639,2,4,1
102.0,282.0,4.80752724179,2,4,1
102.0,285.0,2.99106068719,2,4,1
102.0,288.0,0.868990558445,2,4,0
102.0,291.0,2.73625221174,2,6,0
102.0,294.0,6.72071673352,2,6,0
102.0,297.0,6.61352769126,2,6,0
102.0,300.0,6.18661457418,2,6,0
102.0,303.0,8.98889028397,2,6,0
102.0,306.0,8.84820592717,2,6,1
102.0,309.0,6.15293675788,2,6,0
102.0,312.0,4.09123618798,2,6,0
102.0,315.0,1.77080850166,2,6,0
102.0,318.0,0.140792555082,2,6,0
102,321,0,1,6,0
105.0,0.0,13.8764275770,2,6,0
105.0,3.0,13.6827248511,2,6,0
105.0,6.0,13.2285569894,2,6,0
105.0,9.0,12.9901040884,2,6,0
105.0,12.0,12.8984790858,2,6,0
105.0,15.0,11.8603825684,2,6,0
105.0,18.0,10.4594131262,2,6,0
105.0,21.0,10.4324532534,2,6,0
105.0,24.0,11.1198043389,2,6,0
105.0,27.0,11.2173936943,2,6,0
105.0,30.0,10.8610041763,2,6,0
105.0,33.0,11.1710121628,2,6,0
105.0,36.0,11.0841903397,2,6,0
105.0,39.0,10.9878133501,2,6,0
105.0,42.0,10.7550862803,2,6,0
105.0,45.0,10.8744736613,2,6,0
105.0,48.0,7.87190022173,2,6,0
105.0,51.0,6.67447525418,2,6,0
105.0,54.0,7.04959597386,2,6,0
105.0,57.0,12.6590465561,2,6,0
105.0,60.0,14.5468659864,2,6,0
105.0,63.0,15.7176872595,2,6,0
105.0,66.0,16.1649322106,2,6,0
105.0,69.0,16.2192470539,2,6,0
105.0,72.0,16.0490881965,2,6,0
105.0,75.0,14.0245708257,2,6,0
105.0,78.0,9.57347197136,2,6,0
105.0,81.0,9.57742006523,2,6,0
105.0,84.0,8.86302748228,2,6,0
105.0,87.0,9.39613100299,2,6,0
105.0,90.0,9.42654723816,2,6,0
105.0,93.0,9.40284544000,2,6,0
105.0,96.0,9.43988973794,2,6,0
105.0,99.0,9.34491713777,2,6,0
105.0,102.0,9.33777937903,2,6,0
105.0,105.0,9.24896800050,2,6,0
105.0,108.0,9.22903554602,2,6,0
105.0,111.0,9.13678436114,2,6,0
105.0,114.0,9.39577761784,2,6,0
105.0,117.0,9.36856699062,2,6,0
105.0,120.0,9.31214573400,2,6,0
105.0,123.0,9.31900548392,2,6,0
105.0,126.0,9.25857074090,2,6,0
105.0,129.0,9.28954487219,2,6,0
105.0,132.0,9.31406698828,2,3,0
105.0,135.0,9.21896307601,2,3,0
105.0,138.0,9.24581626014,2,3,0
105.0,141.0,9.08153187191,2,3,0
105.0,144.0,9.21225221001,2,3,0
105.0,147.0,9.53072835201,2,3,0
105.0,150.0,9.43212324304,2,3,0
105.0,153.0,8.50167231735,2,3,1
105.0,156.0,7.36802515187,2,3,1
105.0,159.0,6.90853155573,2,3,1
105.0,162.0,6.88615754180,2,3,0
105.0,165.0,6.87178656266,2,3,0
105.0,168.0,6.93655209422,2,3,0
105.0,171.0,7.04755415258,2,3,0
105.0,174.0,7.44259911878,2,3,0
105.0,177.0,9.46360139215,2,6,0
105.0,180.0,10.2553770008,2,6,0
105.0,183.0,9.84757058451,2,6,0
105.0,186.0,8.82128367783,2,6,0
105.0,189.0,7.64169557001,2,6,0
105.0,192.0,6.77071442864,2,3,1
105.0,195.0,6.68664162498,2,3,0
105.0,198.0,6.90130540941,2,3,0
105.0,201.0,6.84258694635,2,3,1
105.0,204.0,6.27015567614,2,3,0
105.0,207.0,6.88161007550,2,3,0
105.0,210.0,8.49008310115,2,6,0
105.0,213.0,10.0027988761,2,6,0
105.0,216.0,10.4875481809,2,6,0
105.0,219.0,10.5042500946,2,6,0
105.0,222.0,11.2987641694,2,6,0
105.0,225.0,12.3258237249,2,6,0
105.0,228.0,12.9736176254,2,6,0
105.0,231.0,12.7051462970,2,6,1
105.0,234.0,12.1573900120,2,6,1
105.0,237.0,10.8834102908,2,6,0
105.0,240.0,8.98768762081,2,6,1
105.0,243.0,8.14039100845,2,3,1
105.0,246.0,8.17022222015,2,3,0
105.0,249.0,8.48805663909,2,6,0
105.0,252.0,9.21883354538,2,6,0
105.0,255.0,10.1091942667,2,6,0
105.0,258.0,9.94854193006,2,6,0
105.0,261.0,4.94727007243,2,3,0
105.0,264.0,2.08591346927,2,4,0
105.0,267.0,0.12013829573,2,4,1
105,270,0,1,6,0
105,273,0,1,6,0
105.0,276.0,2.04429654811,2,4,1
105.0,279.0,4.17331805520,2,4,1
105.0,282.0,3.96560919823,2,4,0
105.0,285.0,2.65073420363,2,4,0
105.0,288.0,0.585852515558,2,4,1
105.0,291.0,3.49560759485,2,4,0
105.0,294.0,5.83058774905,2,6,0
105.0,297.0,5.44510783429,2,6,0
105.0,300.0,5.74536970213,2,6,0
105.0,303.0,8.74550844583,2,6,0
105.0,306.0,4.14452992931,2,6,1
105.0,309.0,1.94589752497,2,4,1
105.0,312.0,0.283131209342,2,4,0
105,315,0,1,6,0
105,318,0,1,6,0
105,321,0,1,6,0
108.0,0.0,14.8740886661,2,6,0
108.0,3.0,14.4092970312,2,6,0
108.0,6.0,13.1507295756,2,6,0
108.0,9.0,12.7669043969,2,6,0
108.0,12.0,12.2523093043,2,6,0
108.0,15.0,10.8799218395,2,6,0
108.0,18.0,10.5005838856,2,6,0
108.0,21.0,10.2091017006,2,6,0
108.0,24.0,9.97350181866,2,6,0
108.0,27.0,9.60483156191,2,6,0
108.0,30.0,9.39593023356,2,6,0
108.0,33.0,9.40380273610,2,6,0
108.0,36.0,9.39632343930,2,6,0
108.0,39.0,9.41737475085,2,6,0
108.0,42.0,10.1261070275,2,6,0
108.0,45.0,10.6717696019,2,6,0
108.0,48.0,8.15432612688,2,6,0
108.0,51.0,7.02953727832,2,6,0
108.0,54.0,8.96417664611,2,6,0
108.0,57.0,14.9963274488,2,6,0
108.0,60.0,17.1794996784,2,6,0
108.0,63.0,17.3222001150,2,6,0
108.0,66.0,17.3491224148,2,6,0
108.0,69.0,17.7835944306,2,6,0
108.0,72.0,17.3088434403,2,6,0
108.0,75.0,14.7290182896,2,6,0
108.0,78.0,9.67041277297,2,6,0
108.0,81.0,9.64367960834,2,6,0
108.0,84.0,8.99636934887,2,6,0
108.0,87.0,9.55811723634,2,6,0
108.0,90.0,9.54527482337,2,6,0
108.0,93.0,9.40678037889,2,6,0
108.0,96.0,9.48715533202,2,6,0
108.0,99.0,9.54143494298,2,6,0
108.0,102.0,9.49914932829,2,6,0
108.0,105.0,9.39493795368,2,6,0
108.0,108.0,9.24796506628,2,6,0
108.0,111.0,9.29226487718,2,6,0
108.0,114.0,9.53721865487,2,6,0
108.0,117.0,9.49386372471,2,6,0
108.0,120.0,9.54198718045,2,6,0
108.0,123.0,9.38238117466,2,6,0
108.0,126.0,9.33203548096,2,6,0
108.0,129.0,9.34174793438,2,3,0
108.0,132.0,9.39831207256,2,3,0
108.0,135.0,9.39210864786,2,3,0
108.0,138.0,10.0038416080,2,3,0
108.0,141.0,9.68523597299,2,3,0
108.0,144.0,8.95819677179,2,3,0
108.0,147.0,8.77483813721,2,3,0
108.0,150.0,8.35051630705,2,3,0
108.0,153.0,7.73065865248,2,3,0
108.0,156.0,7.10634740005,2,3,0
108.0,159.0,6.88426375161,2,3,0
108.0,162.0,6.81031451055,2,3,0
108.0,165.0,6.91867419415,2,3,0
108.0,168.0,7.30479847738,2,3,0
108.0,171.0,7.73160247453,2,3,0
108.0,174.0,9.90652696774,2,6,0
108.0,177.0,12.2739687655,2,6,0
108.0,180.0,12.6160107942,2,6,0
108.0,183.0,10.9425407158,2,6,0
108.0,186.0,10.1218389170,2,6,0
108.0,189.0,10.6134382311,2,6,0
108.0,192.0,7.08864635274,2,6,0
108.0,195.0,6.58396933869,2,3,1
108.0,198.0,6.77667163501,2,3,1
108.0,201.0,6.84705061680,2,3,0
108.0,204.0,7.13692929637,2,3,0
108.0,207.0,8.30831508126,2,3,0
108.0,210.0,9.34097305499,2,6,0
108.0,213.0,10.4327201010,2,6,0
108.0,216.0,11.1808450382,2,6,0
108.0,219.0,11.0182525818,2,6,0
108.0,222.0,11.6459204528,2,6,0
108.0,225.0,12.4641264243,2,6,0
108.0,228.0,13.5234997532,2,6,0
108.0,231.0,12.9285053790,2,6,1
108.0,234.0,11.8833023236,2,6,0
108.0,237.0,10.4892449712,2,6,0
108.0,240.0,8.62920244140,2,6,0
108.0,243.0,8.13133776818,2,6,1
108.0,246.0,7.95729085975,2,3,1
108.0,249.0,8.00627859285,2,3,0
108.0,252.0,8.39026190074,2,6,0
108.0,255.0,8.81421960521,2,6,0
108.0,258.0,8.47211779322,2,6,0
108.0,261.0,5.03001332874,2,3,0
108.0,264.0,3.01518574309,2,4,0
108.0,267.0,0.381210887546,2,4,1
108,270,0,1,6,0
108,273,0,1,6,0
108,276,0,1,6,0
108.0,279.0,1.15105793933,2,4,1
108.0,282.0,3.95721489619,2,4,0
108.0,285.0,0.478762633596,2,4,0
108,288,0,1,6,0
108.0,291.0,2.50981079295,2,4,1
108.0,294.0,3.95022596565,2,4,0
108.0,297.0,4.12464764764,2,4,0
108.0,300.0,5.30763645592,2,3,0
108.0,303.0,5.94509019239,2,4,0
108,306,0,1,6,0
108,309,0,1,6,0
108,312,0,1,6,0
108,315,0,1,6,0
108,318,0,1,6,0
108,321,0,1,6,0
111.0,0.0,14.8160235681,2,6,0
111.0,3.0,14.5410356544,2,6,0
111.0,6.0,13.5083720033,2,6,0
111.0,9.0,12.6616672989,2,6,0
111.0,12.0,12.5196192762,2,6,0
111.0,15.0,12.5529757552,2,6,0
111.0,18.0,11.4288748239,2,6,0
111.0,21.0,10.1587118961,2,6,0
111.0,24.0,9.38003671165,2,6,0
111.0,27.0,9.34008841252,2,6,0
111.0,30.0,9.34032329623,2,6,0
111.0,33.0,9.40444061007,2,6,0
111.0,36.0,9.34005836908,2,6,0
111.0,39.0,9.35605350191,2,6,0
111.0,42.0,10.4199764147,2,6,0
111.0,45.0,9.23766343318,2,6,0
111.0,48.0,9.01860585529,2,6,0
111.0,51.0,9.33324704029,2,6,0
111.0,54.0,12.8513297659,2,6,0
111.0,57.0,17.7210489359,2,6,0
111.0,60.0,18.5079146661,2,6,0
111.0,63.0,18.8594951379,2,6,0
111.0,66.0,19.8185758680,2,6,0
111.0,69.0,19.1081760195,2,6,0
111.0,72.0,18.2432740806,2,6,0
111.0,75.0,15.1633604874,2,6,0
111.0,78.0,9.61872384104,2,6,0
111.0,81.0,9.30439659581,2,6,0
111.0,84.0,9.29029942839,2,6,0
111.0,87.0,9.52072377416,2,6,0
111.0,90.0,9.54170246887,2,6,0
111.0,93.0,9.63699526712,2,6,0
111.0,96.0,9.56218854204,2,6,0
111.0,99.0,9.55679947744,2,6,0
111.0,102.0,9.55159879266,2,6,0
111.0,105.0,9.48411278160,2,6,0
111.0,108.0,9.34667198903,2,6,0
111.0,111.0,9.32168262836,2,6,0
111.0,114.0,9.70536683163,2,6,0
111.0,117.0,9.59733878892,2,6,0
111.0,120.0,9.56024651348,2,6,0
111.0,123.0,9.46860367733,2,6,0
111.0,126.0,9.41260093212,2,3,0
111.0,129.0,10.1735682298,2,3,0
111.0,132.0,9.66503674550,2,3,0
111.0,135.0,9.44709823142,2,3,0
111.0,138.0,10.3653687481,2,3,0
111.0,141.0,9.74489470866,2,6,0
111.0,144.0,8.76140107704,2,3,0
111.0,147.0,8.20276720682,2,3,0
111.0,150.0,7.50404571269,2,3,0
111.0,153.0,7.20920572123,2,3,0
111.0,156.0,6.93925580304,2,3,0
111.0,159.0,6.77035646102,2,3,0
111.0,162.0,6.69185639448,2,3,0
111.0,165.0,7.06228865144,2,3,0
111.0,168.0,8.86638516449,2,6,0
111.0,171.0,11.4264238709,2,6,0
111.0,174.0,13.3309428629,2,6,0
111.0,177.0,13.7794125792,2,6,0
111.0,180.0,11.5785340982,2,6,0
111.0,183.0,10.8482015309,2,6,0
111.0,186.0,11.2839965368,2,6,0
111.0,189.0,10.0356812201,2,6,0
111.0,192.0,8.06161908751,2,6,0
111.0,195.0,6.89868074344,2,6,0
111.0,198.0,6.84468577023,2,3,0
111.0,201.0,6.89231446933,2,3,0
111.0,204.0,7.32920575501,2,3,0
111.0,207.0,8.85855699316,2,6,0
111.0,210.0,9.52390625003,2,6,0
111.0,213.0,11.2534091382,2,6,0
111.0,216.0,10.5100121243,2,6,0
111.0,219.0,10.3766306784,2,6,0
111.0,222.0,12.2077851819,2,6,0
111.0,225.0,12.4586526206,2,6,0
111.0,228.0,13.2412383069,2,6,0
111.0,231.0,13.1997024206,2,6,1
111.0,234.0,11.9316250518,2,6,0
111.0,237.0,10.7225080852,2,6,0
111.0,240.0,9.30667532221,2,6,0
111.0,243.0,8.89843843421,2,6,0
111.0,246.0,8.11340191451,2,6,0
111.0,249.0,7.48550161576,2,3,1
111.0,252.0,7.45488681157,2,6,1
111.0,255.0,7.8661606402,2,6,0
111.0,258.0,6.85333260018,2,6,0
111.0,261.0,5.71852579813,2,3,0
111.0,264.0,4.67092245169,2,6,0
111.0,267.0,1.37895363413,2,4,0
111,270,0,1,6,0
111,273,0,1,6,0
111,276,0,1,6,0
111,279,0,1,6,0
111.0,282.0,0.619642510375,2,4,1
111,285,0,1,6,0
111,288,0,1,6,0
111.0,291.0,1.39310932286,2,4,1
111.0,294.0,2.56535192169,2,4,0
111.0,297.0,2.91306259102,2,4,0
111.0,300.0,4.12203683196,2,4,0
111.0,303.0,2.83482211891,2,4,0
111,306,0,1,6,0
111,309,0,1,6,0
111,312,0,1,6,0
111,315,0,1,6,0
111,318,0,1,6,0
111,321,0,1,6,0
114.0,0.0,14.8392007904,2,6,0
114.0,3.0,14.9691457821,2,6,0
114.0,6.0,14.6565182451,2,6,0
114.0,9.0,13.5350252193,2,6,0
114.0,12.0,13.6714476994,2,6,0
114.0,15.0,12.1013798587,2,6,0
114.0,18.0,11.0005428238,2,6,0
114.0,21.0,9.99052105023,2,6,0
114.0,24.0,9.69119447105,2,6,0
114.0,27.0,9.53629216038,2,6,0
114.0,30.0,9.36027133859,2,6,0
114.0,33.0,9.37105476139,2,6,0
114.0,36.0,9.34005856870,2,6,0
114.0,39.0,9.41544180943,2,6,0
114.0,42.0,10.8768060100,2,6,0
114.0,45.0,10.1406608571,2,6,0
114.0,48.0,9.63747013368,2,6,0
114.0,51.0,12.9523845706,2,6,0
114.0,54.0,14.2655375859,2,6,0
114.0,57.0,18.8694812096,2,6,0
114.0,60.0,20.7465867314,2,6,0
114.0,63.0,21.8720941580,2,6,0
114.0,66.0,21.1162326494,2,6,0
114.0,69.0,19.4450391172,2,6,0
114.0,72.0,18.0063711682,2,6,0
114.0,75.0,15.0080341234,2,6,0
114.0,78.0,9.70332221253,2,6,0
114.0,81.0,9.14357212836,2,6,0
114.0,84.0,9.63639960979,2,6,0
